ply
format ascii 1.0
element vertex 734
property double x
property double z
property double y
property uchar red
property uchar green
property uchar blue
end_header
6.513539518900345 4.923683848797252 1.4203161512027496 124 92 71
6.476907216494846 4.888742268041238 1.4792577319587625 125 93 72
6.440274914089348 4.853800687285224 1.5381993127147773 128 96 75
6.40364261168385 4.81885910652921 1.5971408934707902 126 94 73
6.367010309278351 4.783917525773196 1.6560824742268032 125 93 72
6.330378006872852 4.7489759450171825 1.715024054982818 127 95 74
6.293745704467355 4.714034364261169 1.773965635738831 128 95 74
6.257113402061856 4.679092783505155 1.8329072164948457 126 94 73
6.220481099656357 4.644151202749141 1.8918487972508586 122 90 69
6.18384879725086 4.609209621993127 1.9507903780068716 126 94 73
6.147216494845361 4.574268041237113 2.0097319587628855 122 90 69
6.1105841924398625 4.5393264604810994 2.0686735395188993 125 93 72
6.0739518900343645 4.504384879725086 2.127615120274914 125 93 72
6.037319587628867 4.469443298969072 2.186556701030927 124 91 70
6.000687285223368 4.434501718213059 2.2454982817869418 122 89 68
5.964054982817871 4.399560137457045 2.3044398625429547 125 93 72
5.927422680412372 4.364618556701031 2.3633814432989677 125 93 72
5.890790378006873 4.329676975945017 2.4223230240549833 125 93 72
5.854158075601375 4.2947353951890035 2.481264604810997 123 91 70
5.817525773195877 4.2597938144329905 2.54020618556701 124 92 71
5.780893470790378 4.224852233676977 2.599147766323024 126 94 72
5.74426116838488 4.189910652920963 2.658089347079038 126 92 72
5.707628865979382 4.154969072164949 2.7170309278350517 125 91 70
5.670996563573883 4.120027491408935 2.7759725085910656 130 96 75
5.634364261168385 4.085085910652921 2.8349140893470786 129 95 75
5.597731958762887 4.0501443298969075 2.8938556701030915 125 91 71
5.5610996563573885 4.015202749140894 2.9527972508591045 128 95 74
5.5244673539518905 3.98026116838488 3.011738831615121 128 95 74
5.4878350515463925 3.9453195876288665 3.070680412371135 127 95 74
5.451202749140894 3.910378006872852 3.1296219931271487 128 96 74
5.414570446735397 3.875436426116839 3.1885635738831617 126 93 72
5.377938144329898 3.840494845360825 3.2475051546391764 129 95 75
5.3413058419244 3.8055532646048116 3.3064467353951894 130 96 75
5.304673539518901 3.7706116838487977 3.3653883161512024 128 95 74
5.268041237113403 3.7356701030927835 3.424329896907217 128 95 75
5.231408934707904 3.70072852233677 3.48327147766323 132 100 78
5.194776632302406 3.6657869415807562 3.542213058419245 133 101 80
5.158144329896908 3.630845360824743 3.601154639175257 131 98 77
5.121512027491409 3.5959037800687286 3.6600962199312717 127 95 74
5.08487972508591 3.5609621993127147 3.7190378006872855 131 98 77
5.048247422680413 3.5260206185567013 3.7779793814432985 131 99 78
5.011615120274914 3.4910790378006875 3.8369209621993123 134 102 81
7.334639175257733 5.706886597938145 0.021113402061855524 125 100 90
7.298006872852234 5.671945017182131 0.08005498281786849 114 85 67
7.261374570446736 5.6370034364261175 0.13899656357388324 113 79 58
7.224742268041238 5.602061855670104 0.1979381443298962 111 75 52
7.188109965635739 5.56712027491409 0.25687972508590917 105 71 53
7.151477663230241 5.532178694158076 0.3158213058419239 108 75 58
7.114845360824743 5.497237113402062 0.3747628865979369 111 78 62
7.078213058419244 5.462295532646049 0.43370446735395163 111 78 59
7.0415807560137464 5.427353951890035 0.4926460481099646 111 80 59
7.0049484536082485 5.3924123711340215 0.5515876288659776 119 88 67
6.96831615120275 5.357470790378008 0.6105292096219923 119 87 66
6.931683848797252 5.322529209621994 0.669470790378007 119 84 64
6.895051546391754 5.28758762886598 0.7284123711340182 116 81 61
6.858419243986255 5.252646048109966 0.787353951890033 119 84 64
6.821786941580757 5.217704467353952 0.846295532646046 124 91 69
6.785154639175259 5.1827628865979385 0.9052371134020607 120 89 65
6.74852233676976 5.147821305841925 0.9641786941580737 123 92 67
6.711890034364262 5.112879725085911 1.0231202749140884 121 91 67
6.675257731958764 5.077938144329897 1.0820618556701032 122 91 70
6.638625429553265 5.042996563573883 1.1410034364261161 122 91 70
6.601993127147767 5.008054982817869 1.1999450171821309 125 93 72
6.565360824742269 4.973113402061856 1.2588865979381438 124 92 71
6.52872852233677 4.9381718213058425 1.3178281786941568 121 90 69
6.4920962199312715 4.903230240549829 1.3767697594501715 123 92 71
6.455463917525774 4.868288659793815 1.4357113402061845 124 93 72
6.418831615120276 4.833347079037801 1.4946529209621993 124 93 72
6.382199312714778 4.798405498281788 1.5535945017182122 125 94 73
6.34556701030928 4.763463917525774 1.612536082474226 127 96 75
6.308934707903781 4.72852233676976 1.67147766323024 126 95 72
6.272302405498282 4.693580756013747 1.7304192439862538 124 93 68
6.235670103092785 4.658639175257733 1.7893608247422677 123 93 68
6.199037800687286 4.623697594501719 1.8483024054982806 122 92 67
6.162405498281787 4.588756013745705 1.9072439862542936 123 92 68
6.12577319587629 4.553814432989691 1.9661855670103083 123 92 67
6.089140893470791 4.518872852233677 2.0251271477663213 125 94 69
6.052508591065292 4.483931271477664 2.084068728522336 121 91 66
6.015876288659794 4.44898969072165 2.143010309278351 122 91 67
5.979243986254296 4.414048109965636 2.2019518900343638 125 94 70
5.9426116838487975 4.379106529209622 2.2608934707903785 124 94 69
5.9059793814433 4.344164948453608 2.3198350515463915 122 92 67
5.8693470790378015 4.309223367697595 2.3787766323024044 125 94 69
5.8327147766323035 4.2742817869415815 2.4377182130584183 123 93 68
5.796082474226805 4.239340206185567 2.496659793814432 124 93 68
5.759450171821307 4.204398625429554 2.555601374570446 124 93 68
5.722817869415808 4.16945704467354 2.61454295532646 128 97 73
5.68618556701031 4.134515463917526 2.6734845360824737 125 95 70
5.649553264604812 4.099573883161512 2.7324261168384876 125 95 70
5.612920962199313 4.064632302405499 2.7913676975945005 124 94 69
5.576288659793815 4.0296907216494855 2.8503092783505144 125 94 69
5.539656357388317 3.9947491408934717 2.9092508591065283 125 94 69
5.503024054982818 3.9598075601374574 2.968192439862542 127 96 71
5.46639175257732 3.9248659793814435 3.027134020618556 128 98 73
5.429759450171822 3.88992439862543 3.08607560137457 129 98 73
5.393127147766323 3.854982817869416 3.1450171821305837 130 99 74
5.356494845360826 3.820041237113403 3.2039587628865966 130 100 75
5.3198625429553275 3.7850996563573887 3.2629003436426096 126 95 70
5.2832302405498295 3.7501580756013753 3.3218419243986235 126 95 73
5.246597938144331 3.7152164948453614 3.3807835051546373 128 96 75
5.209965635738833 3.680274914089347 3.439725085910652 133 101 80
5.173333333333334 3.6453333333333338 3.498666666666665 132 100 79
5.136701030927836 3.61039175257732 3.557608247422679 126 94 73
5.100068728522338 3.5754501718213065 3.616549828178692 125 93 72
5.063436426116839 3.5405085910652927 3.6754914089347057 130 98 77
5.02680412371134 3.5055670103092784 3.7344329896907205 130 99 78
4.990171821305843 3.470625429553265 3.7933745704467334 131 99 78
7.276563573883162 5.651491408934708 0.03650859106529225 117 88 74
7.239931271477664 5.6165498281786945 0.09545017182130522 109 76 60
7.203298969072165 5.581608247422681 0.15439175257731996 106 73 56
7.166666666666667 5.546666666666667 0.21333333333333293 107 74 57
7.130034364261169 5.511725085910653 0.2722749140893477 111 78 61
7.09340206185567 5.476783505154639 0.33121649484536064 110 78 59
7.056769759450172 5.441841924398625 0.3901580756013736 112 81 60
7.020137457044674 5.4069003436426115 0.44909965635738835 113 82 61
6.983505154639176 5.371958762886599 0.5080412371134013 118 87 66
6.946872852233677 5.337017182130584 0.5669828178694161 119 84 64
6.910240549828179 5.302075601374571 0.625924398625429 113 78 58
6.8736082474226805 5.267134020618557 0.684865979381442 113 77 58
6.8369759450171825 5.232192439862543 0.7438075601374567 119 87 63
6.800343642611685 5.197250859106529 0.8027491408934697 120 91 64
6.763711340206186 5.1623092783505165 0.8616907216494862 121 91 65
6.727079037800688 5.127367697594502 0.9206323024054992 117 87 61
6.69044673539519 5.092426116838489 0.9795738831615122 119 88 67
6.653814432989691 5.057484536082475 1.0385154639175251 122 91 70
6.617182130584193 5.022542955326461 1.0974570446735399 125 94 73
6.580549828178695 4.987601374570447 1.1563986254295529 125 94 73
6.543917525773196 4.952659793814433 1.2153402061855676 126 95 74
6.507285223367698 4.91771821305842 1.2742817869415806 124 93 72
6.4706529209622 4.882776632302406 1.3332233676975935 126 95 74
6.434020618556701 4.847835051546392 1.3921649484536083 126 95 74
6.397388316151203 4.812893470790378 1.4511065292096212 126 95 74
6.360756013745705 4.777951890034364 1.510048109965636 120 89 68
6.3241237113402065 4.74301030927835 1.568989690721649 122 92 68
6.287491408934708 4.708068728522337 1.6279312714776637 126 96 69
6.2508591065292105 4.673127147766323 1.6868728522336767 123 93 67
6.214226804123712 4.638185567010309 1.7458144329896896 124 94 68
6.177594501718214 4.603243986254296 1.8047560137457035 125 96 69
6.140962199312716 4.568302405498282 1.8636975945017191 122 92 66
6.104329896907217 4.533360824742268 1.922639175257732 123 93 67
6.067697594501718 4.4984192439862545 1.9815807560137468 122 92 66
6.031065292096221 4.463477663230241 2.04052233676976 123 93 67
5.994432989690722 4.428536082474227 2.0994639175257728 120 90 63
5.957800687285224 4.393594501718214 2.1584054982817875 123 93 67
5.921168384879726 4.3586529209622 2.2173470790378005 124 94 68
5.884536082474227 4.323711340206186 2.2762886597938143 126 96 70
5.847903780068729 4.288769759450172 2.335230240549828 125 95 69
5.81127147766323 4.2538281786941585 2.394171821305842 124 94 67
5.774639175257732 4.218886597938145 2.453113402061856 125 95 69
5.7380068728522335 4.183945017182131 2.512054982817869 125 95 69
5.7013745704467365 4.149003436426117 2.5709965635738827 125 95 69
5.664742268041238 4.114061855670103 2.6299381443298966 126 96 70
5.628109965635739 4.079120274914089 2.6888797250859113 124 94 67
5.591477663230242 4.0441786941580755 2.747821305841925 124 94 68
5.554845360824743 4.009237113402062 2.806762886597939 125 95 69
5.518213058419245 3.9742955326460487 2.865704467353952 126 96 70
5.481580756013747 3.9393539518900345 2.924646048109965 129 99 73
5.444948453608248 3.9044123711340206 2.9835876288659806 126 96 70
5.40831615120275 3.8694707903780072 3.0425292096219927 127 97 71
5.371683848797251 3.8345292096219934 3.1014707903780074 130 100 74
5.335051546391753 3.79958762886598 3.1604123711340204 127 98 71
5.298419243986254 3.7646460481099657 3.219353951890035 130 99 76
5.261786941580756 3.729704467353952 3.278295532646048 130 99 79
5.225154639175258 3.6947628865979385 3.337237113402061 129 98 77
5.1885223367697595 3.659821305841924 3.396178694158076 132 101 80
5.151890034364262 3.624879725085911 3.455120274914089 130 99 78
5.1152577319587635 3.589938144329897 3.5140618556701027 131 100 79
5.078625429553266 3.5549965635738836 3.5730034364261165 132 101 80
5.041993127147767 3.5200549828178698 3.6319450171821304 134 103 82
5.005360824742269 3.4851134020618555 3.690886597938144 130 99 78
4.96872852233677 3.450171821305842 3.749828178694157 130 99 78
7.2184879725085915 5.5960962199312725 0.0519037800687272 115 83 67
7.181855670103094 5.561154639175259 0.11084536082474195 106 73 56
7.145223367697596 5.526213058419245 0.1697869415807549 109 76 59
7.108591065292097 5.491271477663231 0.22872852233676966 113 80 62
7.071958762886599 5.456329896907217 0.2876701030927826 115 83 63
7.0353264604811 5.421388316151203 0.3466116838487956 116 83 63
6.998694158075602 5.3864467353951895 0.40555326460481034 120 88 67
6.962061855670104 5.351505154639176 0.4644948453608251 119 84 64
6.925429553264606 5.316563573883162 0.523436426116838 116 82 61
6.888797250859107 5.281621993127148 0.582378006872851 114 79 59
6.852164948453609 5.246680412371134 0.6413195876288658 117 83 62
6.81553264604811 5.21173883161512 0.7002611683848805 121 90 67
6.778900343642612 5.1767972508591065 0.7592027491408917 123 91 69
6.742268041237114 5.1418556701030935 0.8181443298969064 120 88 65
6.7056357388316155 5.10691408934708 0.8770859106529194 118 86 65
6.6690034364261175 5.071972508591065 0.9360274914089342 121 89 68
6.6323711340206195 5.037030927835052 0.9949690721649489 128 96 75
6.595738831615121 5.002089347079038 1.0539106529209619 130 98 77
6.559106529209623 4.967147766323024 1.1128522336769748 129 97 76
6.522474226804125 4.932206185567011 1.1717938144329896 123 91 70
6.485841924398626 4.897264604810998 1.2307353951890025 127 95 74
6.449209621993128 4.862323024054984 1.2896769759450155 131 99 78
6.41257731958763 4.82738144329897 1.3486185567010303 125 93 72
6.375945017182131 4.792439862542956 1.407560137457045 125 93 72
6.339312714776633 4.757498281786942 1.466501718213058 126 94 72
6.302680412371135 4.722556701030928 1.525443298969071 125 93 71
6.266048109965636 4.687615120274915 1.584384879725084 122 90 67
6.229415807560138 4.652673539518901 1.6433264604810995 126 95 72
6.19278350515464 4.617731958762887 1.7022680412371134 126 94 71
6.156151202749141 4.582790378006873 1.7612096219931273 125 94 71
6.119518900343643 4.547848797250859 1.820151202749141 127 95 73
6.0828865979381455 4.512907216494845 1.879092783505154 125 94 71
6.046254295532647 4.4779656357388316 1.938034364261167 123 91 68
6.009621993127149 4.443024054982819 1.9969759450171818 124 92 70
5.972989690721651 4.408082474226804 2.0559175257731948 124 92 70
5.936357388316152 4.373140893470791 2.1148591065292095 125 93 70
5.899725085910654 4.338199312714777 2.1738006872852225 124 92 69
5.863092783505156 4.303257731958763 2.2327422680412363 126 94 72
5.826460481099657 4.26831615120275 2.29168384879725 127 95 73
5.789828178694159 4.2333745704467365 2.350625429553263 125 93 71
5.75319587628866 4.198432989690722 2.409567010309278 124 92 69
5.716563573883162 4.163491408934709 2.468508591065291 126 95 72
5.679931271477663 4.128549828178695 2.5274501718213047 128 96 74
5.643298969072165 4.093608247422681 2.5863917525773186 125 93 70
5.606666666666667 4.058666666666667 2.6453333333333324 125 94 71
5.5700343642611685 4.0237250859106535 2.7042749140893463 127 95 73
5.533402061855671 3.9887835051546396 2.7632164948453593 131 99 76
5.4967697594501725 3.953841924398626 2.822158075601374 129 98 75
5.460137457044675 3.9189003436426124 2.881099656357387 130 98 76
5.423505154639177 3.8839587628865986 2.9400412371134 130 98 75
5.386872852233678 3.8490171821305843 2.9989828178694147 128 96 73
5.35024054982818 3.814075601374571 3.0579243986254276 130 99 76
5.313608247422681 3.779134020618557 3.1168659793814424 133 101 79
5.276975945017183 3.7441924398625437 3.1758075601374545 132 100 79
5.240343642611684 3.7092508591065294 3.234749140893469 130 98 77
5.203711340206187 3.674309278350516 3.293690721649482 133 101 80
5.167079037800688 3.639367697594502 3.3526323024054987 133 101 80
5.130446735395189 3.6044261168384883 3.4115738831615126 132 100 79
5.093814432989692 3.569484536082475 3.4705154639175255 133 101 80
5.057182130584193 3.5345429553264607 3.5294570446735403 138 106 85
5.020549828178695 3.4996013745704473 3.5883986254295523 134 103 82
4.9839175257731965 3.4646597938144335 3.647340206185567 130 98 77
4.9472852233676985 3.429718213058419 3.706281786941582 132 101 80
7.197044673539519 5.575642611683849 0.00835738831615096 119 93 80
7.160412371134021 5.540701030927836 0.06729896907216393 105 76 61
7.123780068728522 5.505759450171821 0.12624054982817867 108 74 59
7.0871477663230245 5.470817869415807 0.18518213058419342 119 82 67
7.0505154639175265 5.435876288659794 0.24412371134020638 119 83 64
7.0138831615120285 5.40093470790378 0.30306529209621935 123 88 67
6.97725085910653 5.3659931271477666 0.3620068728522341 117 85 64
6.940618556701032 5.331051546391753 0.42094845360824706 116 84 63
6.903986254295533 5.296109965635739 0.4798900343642618 110 78 57
6.867353951890035 5.261168384879725 0.5388316151202748 116 84 63
6.830721649484536 5.226226804123711 0.5977731958762877 119 88 67
6.794089347079039 5.191285223367698 0.6567147766323007 122 90 69
6.75745704467354 5.156343642611684 0.7156563573883155 121 89 68
6.720824742268042 5.121402061855671 0.7745979381443302 120 88 67
6.684192439862543 5.086460481099657 0.8335395189003432 119 87 66
6.647560137457045 5.051518900343643 0.8924810996563579 128 96 75
6.610927835051546 5.016577319587629 0.9514226804123691 129 97 76
6.574295532646048 4.981635738831615 1.0103642611683856 126 94 73
6.53766323024055 4.946694158075601 1.0693058419243986 125 93 72
6.5010309278350515 4.911752577319588 1.1282474226804116 125 93 72
6.464398625429554 4.876810996563574 1.1871890034364245 127 95 74
6.427766323024056 4.84186941580756 1.2461305841924393 128 96 75
6.391134020618557 4.806927835051546 1.305072164948454 127 96 75
6.354501718213059 4.771986254295532 1.364013745704467 129 97 76
6.317869415807561 4.737044673539519 1.4229553264604817 127 95 74
6.281237113402062 4.7021030927835055 1.4818969072164947 127 95 74
6.244604810996565 4.667161512027492 1.5408384879725077 126 94 73
6.207972508591066 4.632219931271478 1.5997800687285224 125 93 72
6.171340206185567 4.597278350515464 1.6587216494845372 124 92 71
6.134707903780069 4.562336769759451 1.7176632302405501 129 98 77
6.098075601374571 4.527395189003437 1.776604810996563 126 94 73
6.061443298969072 4.492453608247423 1.8355463917525778 125 94 71
6.024810996563574 4.4575120274914095 1.8944879725085908 126 94 72
5.988178694158076 4.422570446735396 1.9534295532646055 124 92 70
5.9515463917525775 4.387628865979382 2.0123711340206185 124 93 70
5.9149140893470795 4.352687285223368 2.0713127147766324 123 91 69
5.8782817869415815 4.317745704467354 2.1302542955326444 124 93 70
5.841649484536083 4.28280412371134 2.189195876288659 126 92 71
5.805017182130585 4.2478625429553265 2.248137457044672 125 91 69
5.768384879725087 4.212920962199313 2.307079037800687 125 91 69
5.731752577319588 4.177979381443299 2.3660206185567 126 92 71
5.69512027491409 4.143037800687285 2.4249621993127146 126 94 72
5.658487972508592 4.108096219931271 2.4839037800687294 125 93 70
5.621855670103093 4.073154639175257 2.542845360824743 126 94 72
5.585223367697595 4.038213058419244 2.6017869415807553 124 92 70
5.548591065292097 4.00327147766323 2.66072852233677 128 96 74
5.511958762886598 3.9683298969072167 2.719670103092783 127 96 73
5.4753264604811 3.933388316151203 2.7786116838487978 132 100 79
5.438694158075601 3.898446735395189 2.8375532646048107 131 99 78
5.402061855670103 3.8635051546391757 2.8964948453608246 128 97 76
5.365429553264605 3.8285635738831614 2.9554364261168384 126 94 73
5.3287972508591075 3.793621993127148 3.0143780068728514 129 97 76
5.292164948453609 3.758680412371134 3.0733195876288653 132 100 79
5.255532646048111 3.7237388316151208 3.132261168384879 132 100 79
5.218900343642613 3.6887972508591065 3.191202749140893 133 101 80
5.182268041237114 3.6538556701030926 3.250144329896907 136 104 83
5.145635738831616 3.6189140893470793 3.3090859106529207 133 101 80
5.109003436426117 3.5839725085910654 3.3680274914089345 131 99 78
5.072371134020619 3.549030927835052 3.4269690721649475 132 101 80
5.03573883161512 3.5140893470790378 3.4859106529209614 134 102 81
4.999106529209623 3.4791477663230244 3.544852233676975 135 103 82
4.962474226804124 3.4442061855670105 3.603793814432989 133 102 80
4.925841924398625 3.4092646048109967 3.662735395189003 134 102 80
7.138969072164949 5.520247422680413 0.023752577319587687 123 91 80
7.102336769759451 5.485305841924399 0.08269415807560065 117 82 70
7.065704467353952 5.450364261168385 0.1416357388316154 119 86 70
7.029072164948454 5.415422680412371 0.20057731958762837 117 84 64
6.992439862542956 5.3804810996563575 0.2595189003436431 116 84 64
6.955807560137458 5.345539518900344 0.3184604810996561 116 84 63
6.919175257731959 5.310597938144331 0.37740206185566905 109 77 56
6.882542955326461 5.275656357388317 0.4363436426116838 112 81 60
6.8459106529209635 5.240714776632303 0.49528522336769676 118 87 66
6.809278350515465 5.205773195876289 0.5542268041237097 120 89 68
6.772646048109966 5.170831615120275 0.6131683848797245 120 89 68
6.736013745704469 5.1358900343642615 0.6721099656357374 119 88 67
6.69938144329897 5.100948453608249 0.7310515463917522 116 85 64
6.662749140893472 5.066006872852235 0.7899931271477652 122 91 70
6.626116838487974 5.031065292096221 0.8489347079037781 125 94 73
6.589484536082475 4.996123711340207 0.9078762886597929 124 93 72
6.552852233676976 4.961182130584193 0.9668178694158076 127 96 75
6.516219931271478 4.926240549828179 1.0257594501718206 128 97 76
6.47958762886598 4.8912989690721655 1.0847010309278353 126 95 74
6.442955326460481 4.856357388316152 1.1436426116838483 125 94 73
6.406323024054984 4.821415807560138 1.202584192439863 125 94 73
6.369690721649485 4.786474226804124 1.261525773195876 125 94 73
6.3330584192439865 4.75153264604811 1.320467353951889 126 95 74
6.2964261168384885 4.716591065292096 1.3794089347079037 128 97 76
6.2597938144329905 4.6816494845360825 1.4383505154639185 125 94 73
6.223161512027492 4.646707903780069 1.4972920962199296 125 94 73
6.186529209621995 4.611766323024056 1.5562336769759444 125 94 73
6.149896907216496 4.576824742268041 1.6151752577319591 127 96 76
6.113264604810997 4.541883161512027 1.674116838487972 124 94 70
6.076632302405499 4.506941580756014 1.733058419243985 123 93 67
6.040000000000001 4.472 1.7919999999999998 124 94 68
6.003367697594502 4.437058419243987 1.8509415807560128 124 94 68
5.966735395189004 4.402116838487974 1.9098831615120266 123 93 67
5.930103092783506 4.367175257731959 1.9688247422680405 123 93 67
5.893470790378007 4.332233676975946 2.0277663230240544 121 91 65
5.856838487972509 4.297292096219932 2.086707903780068 126 93 68
5.820206185567011 4.262350515463918 2.145649484536081 125 90 65
5.783573883161512 4.2274089347079045 2.204591065292096 127 93 68
5.7469415807560145 4.192467353951891 2.2635326460481098 125 92 67
5.7103092783505165 4.157525773195877 2.3224742268041236 124 94 68
5.673676975945018 4.122584192439863 2.3814158075601375 124 94 68
5.63704467353952 4.087642611683849 2.4403573883161496 123 93 67
5.600412371134022 4.052701030927835 2.4992989690721634 125 95 69
5.563780068728523 4.0177594501718215 2.558240549828178 128 98 72
5.527147766323025 3.982817869415808 2.6171821305841902 127 97 71
5.490515463917527 3.9478762886597942 2.676123711340205 129 99 74
5.453883161512028 3.912934707903781 2.735065292096218 129 98 77
5.41725085910653 3.8779931271477666 2.7940068728522345 128 97 76
5.380618556701032 3.843051546391753 2.8529484536082474 129 98 77
5.343986254295533 3.8081099656357393 2.9118900343642613 131 100 79
5.307353951890034 3.773168384879725 2.970831615120276 132 101 80
5.270721649484537 3.7382268041237117 3.029773195876288 126 95 74
5.234089347079038 3.703285223367698 3.088714776632303 128 97 76
5.19745704467354 3.6683436426116844 3.147656357388316 134 103 82
5.160824742268042 3.6334020618556706 3.2065979381443306 130 99 78
5.124192439862544 3.5984604810996563 3.2655395189003444 128 97 76
5.087560137457046 3.563518900343643 3.3244810996563565 127 96 75
5.050927835051547 3.528577319587629 3.3834226804123713 131 100 79
5.014295532646049 3.4936357388316157 3.4423642611683842 135 103 83
4.97766323024055 3.458694158075602 3.501305841924398 133 102 80
4.941030927835053 3.4237525773195885 3.560247422680412 132 102 76
4.904398625429554 3.388810996563574 3.619189003436426 129 99 73
7.080893470790379 5.464852233676976 0.03914776632302441 124 94 82
7.04426116838488 5.429910652920962 0.09808934707903738 110 81 65
7.007628865979382 5.394969072164948 0.15703092783505213 115 83 62
6.970996563573884 5.360027491408935 0.2159725085910651 117 85 63
6.934364261168385 5.325085910652922 0.27491408934707806 112 80 59
6.897731958762887 5.290144329896908 0.3338556701030928 111 79 58
6.861099656357389 5.255202749140894 0.3927972508591058 116 85 64
6.82446735395189 5.22026116838488 0.45173883161511874 117 86 65
6.787835051546392 5.185319587628866 0.5106804123711335 117 86 65
6.751202749140894 5.150378006872852 0.5696219931271482 118 86 65
6.7145704467353955 5.115436426116839 0.6285635738831612 114 83 62
6.6779381443298975 5.080494845360825 0.6875051546391742 117 86 65
6.6413058419243995 5.045553264604811 0.7464467353951871 124 92 71
6.604673539518901 5.010611683848797 0.8053883161512037 125 93 72
6.568041237113402 4.975670103092783 0.8643298969072166 125 94 73
6.531408934707905 4.940728522336769 0.9232714776632314 124 93 72
6.494776632302406 4.905786941580756 0.9822130584192426 124 93 72
6.458144329896908 4.870845360824743 1.0411546391752573 126 94 73
6.42151202749141 4.835903780068729 1.100096219931272 127 96 75
6.384879725085911 4.800962199312715 1.159037800687285 124 93 72
6.348247422680412 4.766020618556701 1.2179793814432998 128 96 75
6.311615120274915 4.731079037800687 1.2769209621993127 128 97 76
6.274982817869416 4.696137457044674 1.3358625429553257 127 95 74
6.238350515463917 4.6611958762886605 1.3948041237113404 128 96 75
6.20171821305842 4.626254295532647 1.4537457044673534 129 98 77
6.165085910652921 4.591312714776633 1.5126872852233664 125 94 73
6.128453608247423 4.556371134020619 1.5716288659793811 125 94 71
6.091821305841925 4.521429553264605 1.630570446735395 123 92 67
6.055189003436427 4.486487972508591 1.6895120274914088 125 95 70
6.018556701030928 4.4515463917525775 1.7484536082474218 126 95 70
5.981924398625431 4.416604810996564 1.8073951890034348 126 96 71
5.945292096219932 4.38166323024055 1.8663367697594495 126 95 70
5.908659793814433 4.346721649484536 1.9252783505154643 124 94 69
5.872027491408935 4.311780068728522 1.984219931271478 125 91 67
5.835395189003437 4.276838487972508 2.043161512027492 126 91 67
5.798762886597938 4.2418969072164945 2.102103092783506 126 92 68
5.76213058419244 4.2069553264604815 2.161044673539518 123 89 65
5.725498281786942 4.172013745704467 2.2199862542955335 127 96 71
5.688865979381443 4.137072164948453 2.2789278350515456 124 93 68
5.652233676975945 4.10213058419244 2.3378694158075604 123 92 67
5.615601374570447 4.067189003436427 2.3968109965635733 125 94 69
5.5789690721649485 4.032247422680412 2.455752577319588 127 96 71
5.5423367697594506 3.9973058419243985 2.514694158075601 127 96 71
5.505704467353953 3.962364261168385 2.573635738831614 129 99 75
5.469072164948454 3.9274226804123713 2.6325773195876288 128 97 76
5.432439862542957 3.892481099656358 2.6915189003436417 126 94 73
5.395807560137458 3.8575395189003436 2.7504604810996556 130 98 77
5.359175257731959 3.82259793814433 2.8094020618556694 126 95 74
5.322542955326461 3.7876563573883164 2.8683436426116833 129 97 76
5.285910652920963 3.752714776632302 2.927285223367697 128 97 76
5.249278350515464 3.717773195876289 2.98622680412371 128 96 75
5.212646048109966 3.682831615120275 3.045168384879725 133 101 80
5.176013745704468 3.6478900343642615 3.104109965635738 129 98 77
5.139381443298969 3.6129484536082477 3.1630515463917517 129 98 77
5.10274914089347 3.5780068728522334 3.2219931271477655 132 101 80
5.066116838487973 3.54306529209622 3.2809347079037794 131 100 79
5.0294845360824745 3.508123711340206 3.3398762886597932 131 99 79
4.9928522336769765 3.473182130584193 3.3988178694158053 134 103 81
4.9562199312714785 3.438240549828179 3.457759450171821 134 103 78
4.91958762886598 3.4032989690721647 3.516701030927835 130 99 74
4.882955326460482 3.3683573883161513 3.575642611683847 133 102 78
7.0228178694158085 5.40945704467354 0.054542955326459364 123 93 78
6.98618556701031 5.374515463917526 0.11348453608247233 118 88 71
6.949553264604812 5.3395738831615125 0.17242611683848708 108 79 58
6.912920962199314 5.304632302405499 0.23136769759450004 108 76 56
6.876288659793815 5.269690721649485 0.2903092783505148 117 82 63
6.839656357388317 5.234749140893471 0.34925085910652776 121 87 65
6.803024054982819 5.199807560137458 0.4081924398625407 123 89 65
6.76639175257732 5.164865979381444 0.46713402061855547 118 86 65
6.729759450171822 5.12992439862543 0.5260756013745702 117 85 64
6.693127147766324 5.0949828178694165 0.5850171821305832 118 86 65
6.656494845360825 5.060041237113403 0.6439587628865979 123 91 70
6.619862542955327 5.025099656357389 0.7029003436426109 126 94 73
6.583230240549829 4.990158075601375 0.7618419243986256 125 93 72
6.54659793814433 4.955216494845361 0.8207835051546404 126 94 73
6.509965635738832 4.920274914089347 0.8797250859106533 125 93 72
6.4733333333333345 4.8853333333333335 0.9386666666666663 126 94 73
6.436701030927836 4.85039175257732 0.9976082474226811 126 94 73
6.400068728522338 4.815450171821306 1.056549828178694 127 95 74
6.36343642611684 4.780508591065292 1.115491408934707 127 95 74
6.326804123711341 4.745567010309278 1.1744329896907217 126 94 73
6.290171821305842 4.710625429553264 1.2333745704467347 131 98 77
6.253539518900345 4.675683848797251 1.2923161512027477 129 97 76
6.216907216494846 4.640742268041238 1.3512577319587624 131 99 78
6.180274914089347 4.605800687285224 1.4101993127147754 129 97 76
6.14364261168385 4.57085910652921 1.4691408934707884 129 97 76
6.107010309278351 4.535917525773197 1.528082474226803 127 95 74
6.070378006872852 4.500975945017182 1.5870240549828178 127 95 73
6.033745704467354 4.466034364261169 1.6459656357388326 128 96 75
5.997113402061856 4.4310927835051555 1.7049072164948456 130 98 77
5.9604810996563575 4.396151202749142 1.7638487972508585 131 99 77
5.92384879725086 4.361209621993128 1.8227903780068724 126 94 72
5.887216494845362 4.326268041237114 1.8817319587628862 124 91 70
5.850584192439863 4.2913264604811 1.9406735395189 126 92 72
5.813951890034365 4.256384879725086 1.999615120274914 127 93 72
5.777319587628867 4.221443298969072 2.058556701030928 126 92 71
5.740687285223368 4.186501718213059 2.1174982817869408 124 92 70
5.70405498281787 4.151560137457045 2.1764398625429546 123 91 70
5.667422680412372 4.116618556701031 2.2353814432989685 124 92 71
5.630790378006873 4.081676975945017 2.2943230240549823 126 94 73
5.594158075601375 4.046735395189003 2.353264604810997 128 96 74
5.557525773195877 4.01179381443299 2.41220618556701 128 96 74
5.520893470790378 3.9768522336769765 2.471147766323025 128 96 75
5.48426116838488 3.941910652920962 2.5300893470790387 125 93 72
5.447628865979382 3.906969072164949 2.5890309278350516 126 94 73
5.4109965635738835 3.872027491408935 2.6479725085910655 127 94 73
5.374364261168386 3.8370859106529216 2.7069140893470784 130 98 77
5.3377319587628875 3.8021443298969073 2.765855670103093 128 96 75
5.301099656357389 3.7672027491408935 2.824797250859107 132 100 79
5.264467353951891 3.73226116838488 2.88373883161512 132 100 79
5.227835051546393 3.6973195876288663 2.942680412371134 132 100 79
5.191202749140894 3.662378006872853 3.001621993127147 130 98 77
5.154570446735396 3.6274364261168386 3.0605635738831616 133 101 80
5.117938144329898 3.592494845360825 3.1195051546391745 134 102 81
5.081305841924399 3.5575532646048114 3.1784467353951884 135 103 82
5.0446735395189 3.5226116838487975 3.2373883161512023 134 102 81
5.008041237113403 3.487670103092784 3.296329896907216 135 103 82
4.971408934707904 3.45272852233677 3.35527147766323 133 101 79
4.934776632302406 3.4177869415807565 3.414213058419243 132 100 79
4.898144329896907 3.3828453608247426 3.473154639175257 136 104 83
4.86151202749141 3.3479037800687292 3.5320962199312707 134 102 81
7.001374570446735 5.389003436426117 0.010996563573883122 132 105 94
6.964742268041237 5.354061855670103 0.06993814432989609 109 83 67
6.928109965635739 5.31912027491409 0.12887972508591083 105 74 58
6.891477663230241 5.284178694158076 0.1878213058419238 112 76 60
6.854845360824743 5.249237113402062 0.24676288659793677 121 86 65
6.818213058419245 5.214295532646048 0.3057044673539515 122 88 63
6.781580756013746 5.179353951890034 0.36464604810996626 119 87 66
6.744948453608248 5.14441237113402 0.4235876288659792 118 86 65
6.70831615120275 5.1094707903780066 0.4825292096219922 118 86 65
6.671683848797251 5.074529209621993 0.5414707903780069 121 89 68
6.635051546391753 5.03958762886598 0.6004123711340217 122 91 70
6.598419243986255 5.004646048109966 0.6593539518900347 123 91 70
6.561786941580756 4.969704467353951 0.7182955326460476 121 90 69
6.525154639175258 4.934762886597938 0.7772371134020606 125 94 73
6.48852233676976 4.899821305841924 0.8361786941580753 125 94 73
6.451890034364261 4.864879725085911 0.8951202749140901 123 91 70
6.415257731958763 4.829938144329898 0.954061855670103 125 94 73
6.378625429553265 4.794996563573884 1.013003436426116 124 93 72
6.3419931271477665 4.76005498281787 1.0719450171821308 123 92 71
6.305360824742268 4.725113402061856 1.1308865979381437 126 94 73
6.268728522336771 4.690171821305842 1.1898281786941585 128 96 75
6.232096219931272 4.6552302405498285 1.2487697594501714 124 92 71
6.195463917525774 4.620288659793815 1.3077113402061844 129 97 76
6.158831615120276 4.585347079037801 1.3666529209621991 128 96 75
6.122199312714777 4.550405498281787 1.425594501718214 126 95 74
6.085567010309278 4.515463917525773 1.4845360824742269 126 95 74
6.048934707903781 4.480522336769759 1.5434776632302416 124 92 71
6.012302405498282 4.4455807560137455 1.6024192439862546 126 94 73
5.975670103092784 4.410639175257732 1.6613608247422684 127 95 74
5.939037800687286 4.375697594501718 1.7203024054982823 128 96 75
5.902405498281787 4.340756013745705 1.7792439862542953 125 94 71
5.865773195876288 4.30581443298969 1.83818556701031 126 95 70
5.8291408934707905 4.270872852233677 1.897127147766323 123 92 68
5.7925085910652925 4.235931271477663 1.956068728522336 124 93 69
5.755876288659794 4.2009896907216495 2.0150103092783507 123 93 68
5.7192439862542965 4.166048109965637 2.0739518900343636 123 93 68
5.682611683848798 4.131106529209623 2.1328934707903784 123 92 68
5.645979381443299 4.096164948453608 2.1918350515463914 123 92 67
5.609347079037802 4.061223367697595 2.2507766323024043 126 95 70
5.572714776632303 4.026281786941581 2.309718213058419 128 97 72
5.536082474226804 3.991340206185567 2.368659793814434 127 96 71
5.499450171821307 3.9563986254295536 2.427601374570446 127 96 71
5.462817869415808 3.9214570446735393 2.4865429553264597 123 93 68
5.42618556701031 3.886515463917526 2.5454845360824736 127 96 72
5.389553264604811 3.851573883161512 2.6044261168384875 131 99 77
5.352920962199313 3.8166323024054987 2.6633676975945004 130 99 78
5.316288659793814 3.781690721649485 2.7223092783505143 132 100 79
5.279656357388316 3.7467491408934706 2.781250859106529 130 99 78
5.243024054982818 3.711807560137457 2.840192439862542 132 101 80
5.20639175257732 3.6768659793814433 2.899134020618556 130 98 77
5.1697594501718225 3.64192439862543 2.958075601374569 130 99 78
5.133127147766324 3.6069828178694157 3.0170171821305836 130 99 78
5.096494845360825 3.572041237113402 3.0759587628865974 132 100 79
5.059862542955327 3.5370996563573884 3.134900343642612 136 104 83
5.023230240549829 3.5021580756013746 3.193841924398627 134 103 80
4.98659793814433 3.467216494845361 3.25278350515464 131 101 76
4.949965635738832 3.432274914089347 3.3117250859106537 130 99 75
4.913333333333334 3.3973333333333335 3.3706666666666676 134 103 78
4.876701030927835 3.3623917525773197 3.4296082474226814 132 101 79
4.840068728522337 3.3274501718213054 3.4885498281786953 136 104 83
4.803436426116839 3.2925085910652925 3.5474914089347083 137 105 85
6.943298969072165 5.3336082474226805 0.02639175257731985 119 89 80
6.906666666666667 5.298666666666667 0.0853333333333346 111 79 66
6.870034364261169 5.263725085910654 0.14427491408934578 112 81 63
6.83340206185567 5.22878350515464 0.20321649484536053 120 89 68
6.796769759450172 5.193841924398626 0.2621580756013735 123 91 70
6.760137457044674 5.158900343642612 0.32109965635738824 122 90 69
6.7235051546391755 5.123958762886598 0.3800412371134012 117 85 64
6.6868728522336776 5.0890171821305845 0.43898281786941595 117 85 64
6.65024054982818 5.054075601374571 0.4979243986254289 121 90 69
6.613608247422681 5.019134020618557 0.5568659793814437 123 92 71
6.576975945017183 4.984192439862543 0.6158075601374566 124 93 72
6.540343642611685 4.949250859106529 0.6747491408934696 122 91 70
6.503711340206186 4.914309278350515 0.7336907216494843 122 91 70
6.467079037800688 4.8793676975945015 0.7926323024054973 125 94 73
6.43044673539519 4.844426116838488 0.8515738831615121 123 92 71
6.393814432989691 4.809484536082475 0.910515463917525 124 93 72
6.357182130584193 4.774542955326461 0.969457044673538 124 93 72
6.320549828178695 4.739601374570447 1.0283986254295527 126 95 74
6.283917525773196 4.704659793814434 1.0873402061855657 125 94 73
6.247285223367697 4.669718213058419 1.1462817869415804 124 93 72
6.2106529209622 4.6347766323024056 1.2052233676975934 126 95 74
6.1740206185567015 4.599835051546393 1.26416494845361 128 97 76
6.1373883161512035 4.564893470790379 1.3231065292096211 127 96 75
6.1007560137457055 4.529951890034365 1.3820481099656359 129 98 77
6.064123711340207 4.495010309278351 1.4409896907216488 125 95 74
6.027491408934708 4.460068728522337 1.4999312714776636 126 95 74
5.990859106529211 4.425127147766323 1.5588728522336766 125 94 73
5.954226804123712 4.39018556701031 1.6178144329896904 128 97 76
5.917594501718214 4.355243986254296 1.6767560137457043 123 93 69
5.880962199312716 4.320302405498282 1.7356975945017172 127 97 70
5.844329896907217 4.285360824742268 1.794639175257731 122 92 66
5.807697594501718 4.250419243986254 1.853580756013745 120 90 64
5.77106529209622 4.21547766323024 1.9125223367697588 124 94 67
5.734432989690722 4.180536082474227 1.9714639175257727 123 93 67
5.697800687285223 4.145594501718213 2.0304054982817865 123 93 67
5.661168384879726 4.1106529209622 2.0893470790378004 125 95 69
5.624536082474227 4.075711340206186 2.1482886597938142 124 94 67
5.587903780068729 4.040769759450172 2.207230240549828 129 99 73
5.5512714776632315 4.005828178694159 2.266171821305841 128 99 72
5.514639175257733 3.9708865979381445 2.325113402061856 127 97 71
5.478006872852235 3.935945017182131 2.3840549828178688 127 97 70
5.441374570446737 3.9010034364261172 2.4429965635738835 127 97 70
5.404742268041238 3.866061855670103 2.5019381443298974 128 97 74
5.36810996563574 3.83112027491409 2.5608797250859094 130 99 78
5.331477663230241 3.7961786941580757 2.619821305841924 130 99 78
5.294845360824743 3.7612371134020623 2.678762886597937 128 97 76
5.258213058419244 3.7262955326460485 2.737704467353951 131 100 79
5.221580756013746 3.6913539518900342 2.796646048109965 130 99 78
5.184948453608248 3.656412371134021 2.8555876288659787 132 101 80
5.148316151202749 3.621470790378007 2.9145292096219926 130 99 78
5.111683848797252 3.5865292096219936 2.9734707903780055 132 101 80
5.075051546391753 3.55158762886598 3.0324123711340203 133 102 81
5.038419243986255 3.5166460481099664 3.0913539518900333 132 101 79
5.0017869415807565 3.481704467353952 3.150295532646047 129 99 72
4.965154639175259 3.4467628865979383 3.209237113402061 132 102 76
4.92852233676976 3.411821305841925 3.268178694158075 132 102 76
4.891890034364262 3.3768797250859106 3.3271202749140887 131 100 78
4.855257731958764 3.3419381443298977 3.3860618556701008 133 102 81
4.818625429553265 3.3069965635738834 3.4450034364261164 135 104 83
4.781993127147767 3.2720549828178696 3.5039450171821303 137 106 85
6.885223367697595 5.278213058419244 0.0417869415807548 120 93 78
6.848591065292096 5.24327147766323 0.10072852233676954 114 87 68
6.811958762886599 5.208329896907217 0.1596701030927843 118 87 66
6.7753264604811 5.173388316151203 0.21861168384879726 119 87 66
6.738694158075601 5.138446735395188 0.2775532646048102 117 85 64
6.702061855670103 5.103505154639175 0.3364948453608232 117 85 64
6.665429553264605 5.068563573883162 0.3954364261168397 119 87 66
6.628797250859106 5.033621993127148 0.4543780068728527 120 89 68
6.5921649484536085 4.998680412371135 0.5133195876288656 124 92 71
6.5555326460481105 4.963738831615121 0.5722611683848786 124 92 71
6.518900343642612 4.928797250859107 0.6312027491408916 123 92 71
6.482268041237114 4.893855670103093 0.6901443298969081 125 93 72
6.445635738831616 4.8589140893470795 0.7490859106529211 123 91 70
6.409003436426117 4.823972508591066 0.808027491408934 124 92 71
6.372371134020619 4.789030927835052 0.8669690721649488 126 94 73
6.335738831615121 4.754089347079038 0.9259106529209618 126 94 73
6.299106529209622 4.719147766323024 0.9848522336769765 126 94 73
6.262474226804124 4.68420618556701 1.0437938144329895 129 97 76
6.225841924398626 4.6492646048109965 1.1027353951890042 129 98 77
6.189209621993127 4.614323024054983 1.1616769759450172 131 99 78
6.152577319587629 4.579381443298969 1.220618556701032 128 97 76
6.115945017182131 4.544439862542955 1.2795601374570449 127 95 74
6.079312714776632 4.509498281786942 1.3385017182130579 126 94 73
6.042680412371134 4.474556701030927 1.3974432989690726 128 97 76
6.006048109965636 4.4396151202749135 1.4563848797250873 126 95 74
5.969415807560138 4.4046735395189005 1.5153264604811003 127 96 75
5.93278350515464 4.369731958762887 1.5742680412371133 125 93 71
5.896151202749142 4.334790378006873 1.6332096219931262 126 94 71
5.859518900343643 4.29984879725086 1.692151202749141 125 93 70
5.822886597938144 4.264907216494845 1.751092783505154 126 94 72
5.786254295532647 4.229965635738832 1.8100343642611687 127 95 72
5.749621993127148 4.195024054982818 1.8689759450171817 124 92 69
5.71298969072165 4.1600824742268045 1.9279175257731946 124 93 70
5.676357388316152 4.125140893470791 1.9868591065292094 126 95 72
5.639725085910653 4.090199312714777 2.0458006872852224 129 97 74
5.603092783505155 4.055257731958763 2.104742268041236 127 96 73
5.566460481099657 4.020316151202749 2.16368384879725 130 98 75
5.529828178694158 3.985374570446736 2.222625429553263 131 99 77
5.49319587628866 3.9504329896907215 2.2815670103092778 129 97 75
5.4565635738831615 3.9154914089347077 2.3405085910652916 128 96 73
5.4199312714776635 3.8805498281786943 2.3994501718213046 124 93 72
5.383298969072165 3.8456082474226805 2.4583917525773185 126 94 73
5.346666666666668 3.810666666666667 2.5173333333333323 133 101 81
5.310034364261169 3.775725085910653 2.576274914089348 133 101 80
5.273402061855671 3.7407835051546394 2.635216494845361 129 98 77
5.236769759450173 3.7058419243986256 2.6941580756013757 131 99 78
5.200137457044674 3.6709003436426113 2.7530996563573895 131 99 79
5.163505154639176 3.6359587628865984 2.8120412371134025 134 102 81
5.126872852233677 3.601017182130584 2.8709828178694163 134 102 81
5.090240549828179 3.5660756013745707 2.92992439862543 132 100 80
5.05360824742268 3.531134020618557 2.988865979381444 136 104 83
5.016975945017182 3.4961924398625426 3.047807560137458 131 100 77
4.980343642611684 3.461250859106529 3.1067491408934718 133 101 78
4.943711340206185 3.4263092783505154 3.1656907216494856 134 102 79
4.907079037800688 3.391367697594502 3.2246323024054977 136 104 83
4.8704467353951895 3.356426116838488 3.2835738831615124 136 104 83
4.8338144329896915 3.3214845360824747 3.3425154639175254 135 103 82
4.797182130584193 3.2865429553264605 3.4014570446735393 133 101 80
4.760549828178695 3.2516013745704466 3.460398625429554 136 104 83
6.827147766323025 5.222817869415808 0.057182130584191526 119 93 76
6.790515463917526 5.187876288659794 0.11612371134020627 117 88 68
6.753883161512029 5.15293470790378 0.17506529209621924 117 84 62
6.71725085910653 5.117993127147766 0.2340068728522322 119 86 64
6.680618556701032 5.0830515463917525 0.29294845360824695 119 87 66
6.643986254295533 5.048109965635739 0.3518900343642617 120 87 66
6.607353951890035 5.013168384879725 0.4108316151202729 122 90 69
6.570721649484536 4.978226804123711 0.46977319587628763 124 92 71
6.534089347079038 4.943285223367698 0.5287147766323024 125 93 72
6.49745704467354 4.908343642611684 0.5876563573883171 124 92 71
6.460824742268041 4.87340206185567 0.6465979381443301 124 93 72
6.424192439862543 4.8384604810996565 0.705539518900343 124 92 71
6.387560137457045 4.803518900343643 0.7644810996563578 126 94 73
6.350927835051547 4.76857731958763 0.8234226804123725 124 92 71
6.314295532646049 4.733635738831616 0.8823642611683855 125 93 72
6.277663230240551 4.698694158075602 0.9413058419243985 126 94 73
6.241030927835052 4.663752577319588 1.0002474226804114 130 98 77
6.204398625429554 4.628810996563574 1.0591890034364262 129 97 76
6.167766323024056 4.593869415807561 1.1181305841924392 128 96 75
6.131134020618557 4.558927835051547 1.177072164948454 129 97 76
6.094501718213059 4.523986254295533 1.2360137457044669 126 94 73
6.057869415807561 4.489044673539519 1.2949553264604798 127 95 74
6.021237113402062 4.454103092783505 1.3538969072164928 126 94 73
5.984604810996564 4.419161512027491 1.4128384879725076 126 94 73
5.947972508591066 4.384219931271478 1.4717800687285223 128 96 75
5.911340206185567 4.349278350515464 1.5307216494845353 130 98 77
5.874707903780069 4.31433676975945 1.5896632302405482 127 95 74
5.838075601374571 4.279395189003437 1.648604810996563 127 95 74
5.8014432989690725 4.244453608247423 1.7075463917525777 125 93 72
5.7648109965635745 4.209512027491409 1.7664879725085907 123 91 70
5.728178694158077 4.1745704467353955 1.8254295532646054 125 93 72
5.691546391752578 4.139628865979382 1.8843711340206184 126 94 73
5.65491408934708 4.104687285223368 1.9433127147766314 127 95 74
5.618281786941582 4.069745704467355 2.002254295532646 128 96 75
5.581649484536083 4.03480412371134 2.06119587628866 127 95 74
5.545017182130585 3.9998625429553267 2.120137457044674 125 94 71
5.508384879725087 3.964920962199313 2.179079037800687 128 96 74
5.471752577319588 3.9299793814432995 2.2380206185566998 128 96 73
5.43512027491409 3.8950378006872857 2.2969621993127145 125 92 70
5.398487972508591 3.8600962199312714 2.3559037800687292 129 95 73
5.361855670103093 3.825154639175258 2.4148453608247413 134 99 78
5.325223367697594 3.790213058419244 2.473786941580755 133 99 77
5.288591065292097 3.7552714776632308 2.532728522336769 123 92 69
5.2519587628865985 3.7203298969072165 2.591670103092783 132 100 78
5.2153264604811005 3.6853883161512035 2.650611683848796 133 101 79
5.1786941580756025 3.6504467353951893 2.7095532646048097 130 98 77
5.142061855670104 3.6155051546391754 2.7684948453608245 130 98 77
5.105429553264606 3.580563573883162 2.8274364261168374 132 100 79
5.068797250859107 3.5456219931271478 2.8863780068728513 134 102 81
5.032164948453609 3.5106804123711344 2.9453195876288643 131 99 79
4.99553264604811 3.4757388316151205 3.004261168384879 135 103 82
4.958900343642612 3.4407972508591063 3.063202749140893 134 102 82
4.922268041237114 3.4058556701030933 3.122144329896906 135 103 82
4.885635738831615 3.370914089347079 3.1810859106529206 137 105 84
4.849003436426117 3.3359725085910656 3.2400274914089326 136 105 84
4.812371134020619 3.301030927835052 3.2989690721649474 129 97 76
4.775738831615121 3.2660893470790384 3.3579106529209604 133 101 80
4.739106529209622 3.231147766323024 3.416852233676977 136 104 83
6.805704467353952 5.202364261168385 0.013635738831615285 128 102 88
6.769072164948454 5.167422680412371 0.07257731958762825 119 89 71
6.732439862542956 5.132481099656358 0.13151890034364122 113 80 62
6.695807560137458 5.097539518900344 0.19046048109965596 117 84 67
6.659175257731959 5.0625979381443305 0.2494020618556707 118 85 68
6.622542955326461 5.027656357388317 0.30834364261168545 120 87 69
6.585910652920962 4.992714776632303 0.36728522336769664 119 88 67
6.549278350515465 4.957773195876289 0.4262268041237114 121 90 69
6.512646048109966 4.922831615120275 0.48516838487972613 122 91 70
6.476013745704468 4.887890034364261 0.5441099656357391 122 91 70
6.439381443298969 4.8529484536082474 0.6030515463917521 121 90 69
6.402749140893471 4.818006872852234 0.6619931271477668 123 92 71
6.366116838487972 4.78306529209622 0.7209347079037798 121 90 69
6.329484536082475 4.748123711340206 0.7798762886597945 125 94 73
6.292852233676976 4.713182130584192 0.8388178694158075 124 93 72
6.2562199312714775 4.678240549828178 0.8977594501718205 128 97 76
